# .PCD v.7 - Point Cloud Data file format
VERSION .7
FIELDS x y z
SIZE 4 4 4
TYPE F F F
COUNT 1 1 1
WIDTH 1553
HEIGHT 1
POINTS 1553
DATA ascii
-0.0253624 -1.11541 -7.20653 
-0.213647 -0.94529 -7.3317 
-0.208688 -1.00977 -7.32825 
-0.349991 -1.00724 -7.1786 
-0.242114 -1.16255 -7.29662 
-0.132255 -0.524216 -7.16887 
-0.229446 -0.933129 -7.33725 
-0.237895 -0.611011 -7.24708 
-0.300569 -0.697787 -7.2833 
-0.0364308 -1.12675 -7.21279 
-0.115404 -1.1492 -7.25805 
-0.0668798 -0.777908 -7.24684 
-0.228925 -0.590134 -7.11761 
-0.238907 -0.705481 -7.28256 
-0.0279895 -0.92196 -7.23964 
-0.183161 -0.544382 -7.14446 
-0.209313 -0.486467 -7.14761 
-0.22353 -0.99504 -7.32202 
-0.132223 -0.993077 -7.31993 
-0.307156 -1.13089 -7.18356 
-0.243617 -0.752682 -7.29683 
-0.220502 -0.606169 -7.23826 
-0.351363 -0.980687 -7.21952 
-0.317946 -1.10211 -7.15816 
-0.310163 -1.11749 -7.13386 
-0.306666 -1.14529 -7.21428 
-0.236202 -0.607511 -7.24029 
-0.170799 -0.850079 -7.32251 
0.00537675 -0.846416 -7.24061 
-0.20735 -0.527237 -7.10073 
-0.159942 -1.1194 -7.29975 
-0.313223 -0.688406 -7.26299 
-0.314247 -0.72873 -7.28239 
-0.224947 -0.527003 -7.08415 
-0.307627 -1.16108 -7.24986 
-0.323236 -1.04165 -7.24453 
-0.209079 -0.923281 -7.34346 
-0.253487 -0.708595 -7.2884 
-0.331834 -1.00726 -7.23598 
-0.118507 -0.993794 -7.3047 
-0.299275 -0.793563 -7.31901 
-0.286157 -1.16737 -7.30575 
-0.242894 -0.673148 -7.28452 
-0.333038 -1.02663 -7.23766 
-0.236214 -0.472884 -7.09738 
-0.247638 -0.731562 -7.29623 
-0.283444 -0.952703 -7.30564 
-0.319026 -0.721422 -7.26321 
-0.25419 -1.02861 -7.30401 
-0.310394 -1.08532 -7.25673 
-0.0262121 -0.584272 -7.15229 
-0.32187 -0.702153 -7.23252 
-0.221886 -1.07249 -7.3106 
-0.172981 -0.730963 -7.29659 
-0.0331481 -0.838973 -7.23498 
-0.253255 -0.715698 -7.28525 
-0.0471933 -0.986301 -7.27196 
-0.0627263 -0.750788 -7.2353 
-0.31903 -0.933115 -7.27321 
-0.19957 -1.11925 -7.30287 
-0.0671874 -0.878557 -7.26118 
-0.315832 -0.887299 -7.24104 
-0.362304 -0.90532 -7.22683 
0.000936708 -0.618843 -7.11857 
-0.23145 -0.407104 -7.1728 
-0.298522 -0.882175 -7.28662 
-0.309333 -0.707415 -7.26821 
-0.059064 -0.855193 -7.25116 
0.00692625 -0.952929 -7.20204 
-0.257511 -0.613057 -7.26206 
-0.270798 -1.00731 -7.30581 
-0.0374242 -0.835339 -7.22744 
-0.252929 -0.733311 -7.29653 
-0.167534 -1.00135 -7.31997 
-0.304658 -1.1716 -7.29128 
-0.332139 -0.906025 -7.27134 
-0.312939 -0.666681 -7.22323 
-0.315207 -1.11001 -7.16066 
-0.308099 -0.944053 -7.2818 
-0.183172 -0.486568 -7.17384 
-0.0973788 -0.617972 -7.18575 
-0.213641 -0.892587 -7.33552 
-0.347633 -0.935347 -7.25321 
-0.268019 -0.902951 -7.32798 
-0.030081 -0.84184 -7.23531 
-0.0300036 -1.0206 -7.24897 
-0.229535 -0.667766 -7.28486 
-0.150712 -0.852314 -7.3176 
-0.243066 -0.645905 -7.27849 
-0.306629 -1.1618 -7.21455 
-0.258005 -1.13161 -7.2979 
-0.220964 -0.66633 -7.28445 
-0.0671148 -0.977792 -7.27655 
-0.333827 -1.04851 -7.22412 
-0.195264 -1.16031 -7.29338 
-0.207432 -0.537681 -7.10151 
-0.207432 -0.537681 -7.10151 
-0.246881 -1.15917 -7.30031 
-0.222501 -0.86252 -7.32175 
-0.274986 -0.69284 -7.29192 
-0.228087 -0.760777 -7.29833 
-0.267177 -0.885362 -7.28464 
-0.0530395 -0.931182 -7.26516 
-0.245425 -1.08881 -7.29927 
-0.220373 -0.671028 -7.28402 
-0.314526 -0.708689 -7.2596 
-0.0901277 -1.1466 -7.2466 
-0.333357 -0.948838 -7.26765 
-0.0763886 -1.14695 -7.23892 
-0.302266 -0.720543 -7.27992 
-0.302901 -0.72042 -7.28158 
-0.178599 -0.558114 -7.15494 
-0.0507468 -1.00052 -7.27309 
-0.00804844 -0.806573 -7.22756 
-0.166826 -1.16163 -7.28549 
-0.239725 -0.726844 -7.29395 
-0.0150383 -0.878309 -7.25212 
-0.0150383 -0.878309 -7.25212 
-0.0248765 -0.853398 -7.24462 
-0.0486363 -0.874943 -7.26351 
-0.0963857 -0.957564 -7.29375 
-0.129912 -0.9903 -7.31443 
-0.257107 -1.15154 -7.29898 
-0.240422 -1.10151 -7.29662 
-0.202784 -0.504236 -7.13469 
-0.284121 -0.758882 -7.30078 
-0.350084 -0.909388 -7.25746 
-0.257462 -0.884787 -7.29022 
-0.199666 -0.874415 -7.32168 
-0.324337 -0.772571 -7.23601 
-0.178161 -1.00114 -7.32876 
-0.0434332 -0.926106 -7.2526 
-0.0223988 -0.592587 -7.14505 
-0.0998008 -0.991542 -7.30168 
-0.361378 -0.959619 -7.20554 
-0.111399 -0.989197 -7.30236 
-0.190435 -0.999079 -7.32694 
-0.190524 -0.557492 -7.14963 
-0.177888 -0.549104 -7.15645 
-0.0493498 -1.00567 -7.26776 
-0.0398431 -0.913492 -7.24528 
-0.33439 -0.947021 -7.25107 
-0.273244 -0.902486 -7.33046 
-0.0183378 -0.965668 -7.23801 
-0.227234 -0.835079 -7.31503 
-0.234083 -1.15132 -7.29932 
-0.00924953 -0.877205 -7.24809 
-0.204046 -0.529552 -7.10463 
-0.300348 -0.375475 -7.07697 
-0.0591774 -0.953368 -7.27291 
-0.20003 -0.565541 -7.14815 
-0.227379 -0.410663 -7.17291 
-0.183462 -0.866147 -7.3179 
-0.233176 -0.854603 -7.31186 
-0.311153 -1.11372 -7.12994 
-0.311153 -1.11372 -7.12994 
-0.0996958 -1.09862 -7.26606 
-0.203679 -0.893942 -7.3518 
-0.0364719 -0.844837 -7.23751 
-0.238351 -0.714223 -7.28245 
-0.163027 -0.844037 -7.32251 
-0.163027 -0.844037 -7.32251 
-0.252923 -1.16454 -7.29965 
-0.243621 -0.676377 -7.28446 
-0.327308 -1.06366 -7.22313 
-0.29064 -0.905721 -7.3132 
-0.0354307 -0.838133 -7.2299 
-0.209241 -0.535453 -7.09869 
-0.355578 -1.00917 -7.16036 
-0.0543957 -1.13535 -7.22823 
-0.370882 -0.910322 -7.21921 
-0.313871 -0.760715 -7.27938 
-0.207583 -1.06996 -7.31684 
-0.247007 -1.13461 -7.30436 
-0.219025 -0.505048 -7.12269 
-0.0312133 -0.832747 -7.22838 
0.0116658 -0.949244 -7.19328 
-0.279883 -1.1284 -7.30092 
-0.175382 -0.723614 -7.29001 
0.131728 -0.523323 -7.24162 
-0.242385 -1.025 -7.31668 
-0.32776 -0.697393 -7.18394 
-0.106131 -0.94158 -7.29109 
-0.12887 -0.716584 -7.27218 
-0.160155 -0.851455 -7.31919 
-0.0863966 -0.918188 -7.27935 
-0.202019 -0.657468 -7.28782 
-0.0734804 -0.643511 -7.17655 
-0.0999222 -1.11725 -7.26157 
-0.0999222 -1.11725 -7.26157 
-0.250341 -0.611503 -7.26629 
-0.349063 -0.972631 -7.22145 
0.308482 -0.416021 -7.32795 
-0.324507 -0.942128 -7.26922 
0.334289 -0.355267 -7.34164 
-0.361167 -0.922812 -7.23802 
-0.174268 -1.16416 -7.29095 
-0.340814 -0.821548 -7.21315 
-0.340892 -0.986835 -7.23541 
-0.212782 -1.02728 -7.32402 
-0.171518 -0.488579 -7.17234 
0.283208 -0.309074 -7.38295 
0.283131 -0.309061 -7.38312 
0.330541 -0.401593 -7.32509 
0.275585 -0.320625 -7.38134 
-0.0275825 -0.337745 -7.30616 
-0.0274597 -0.337577 -7.30582 
0.0311936 -0.556766 -7.16955 
0.329737 -0.368243 -7.3385 
-0.0765374 -0.952776 -7.28097 
0.324957 -0.415227 -7.3237 
-0.196788 -1.08762 -7.30888 
-0.0811621 -0.931974 -7.28126 
-0.0811621 -0.931974 -7.28126 
-0.247767 -0.354196 -7.17781 
-0.224595 -0.385467 -7.19352 
-0.315769 -0.995413 -7.26945 
0.33003 -0.374476 -7.33334 
-0.359823 -0.896328 -7.20483 
-0.359823 -0.896328 -7.20483 
0.175718 -0.326044 -7.37866 
-0.235339 -0.396923 -7.17488 
0.24154 -0.5512 -7.20795 
0.0966817 -0.0236739 -7.402 
-0.147928 -0.734703 -7.28442 
-0.0112751 -0.867931 -7.24506 
0.321678 -0.36358 -7.34379 
-0.215913 -0.504649 -7.12688 
0.0840787 -0.311535 -7.36262 
-0.342805 -0.932252 -7.26167 
-0.199826 -0.402731 -7.19287 
-0.00292187 -0.832104 -7.23508 
-0.31194 -0.365653 -7.06642 
-0.0784372 -0.648767 -7.18163 
-0.0805439 -0.971686 -7.28565 
0.262683 -0.314016 -7.38497 
-0.22596 -0.36953 -7.19029 
-0.157204 -1.00194 -7.32312 
0.0327911 -0.561365 -7.16624 
0.228636 -0.510696 -7.29696 
-0.246493 -0.616091 -7.21452 
-0.0815532 -0.997869 -7.29537 
-0.0121549 -0.811766 -7.23969 
-0.118054 -1.01076 -7.31413 
-0.341359 -0.926997 -7.25346 
-0.344732 -0.843552 -7.19979 
-0.220235 -1.08546 -7.30624 
-0.112273 -0.504206 -7.1755 
-0.202075 -0.481854 -7.1712 
-0.335579 -0.878819 -7.22511 
-0.350856 -0.901755 -7.24987 
-0.0263168 -0.828722 -7.23097 
-0.0263168 -0.828722 -7.23097 
-0.241459 -0.80337 -7.30511 
-0.0557607 -1.13369 -7.23259 
-0.0310425 -1.12618 -7.21279 
-0.346948 -1.00903 -7.2138 
-0.248813 -1.02697 -7.31582 
-0.0491677 -1.09105 -7.24 
-0.191544 -0.546331 -7.14283 
-0.175356 -0.495684 -7.16981 
-0.116498 -0.949439 -7.29578 
-0.222006 -0.503492 -7.10302 
-0.233056 -0.748987 -7.29858 
-0.180477 -0.473415 -7.17069 
-0.203182 -0.523743 -7.10292 
-0.249135 -0.856963 -7.29928 
-0.21066 -0.365559 -7.19266 
-0.337308 -0.835757 -7.21891 
-0.310845 -0.757911 -7.28187 
-0.323136 -0.905955 -7.28086 
-0.233664 -0.867206 -7.31743 
-0.0616342 -0.849358 -7.25033 
-0.21374 -1.00656 -7.32874 
-0.368894 -0.911666 -7.23442 
-0.0857979 -0.971175 -7.28848 
-0.309006 -0.953296 -7.27508 
-0.0246366 -0.941623 -7.24059 
-0.174421 -0.638856 -7.26033 
-0.303061 -0.690079 -7.27373 
-0.152677 -0.886462 -7.31063 
-0.159606 -0.761205 -7.29322 
-0.0981516 -0.904982 -7.28171 
-0.281327 -0.670619 -7.26981 
-0.0679574 -0.950018 -7.27529 
-0.331375 -0.870884 -7.22243 
-0.210756 -0.391187 -7.19052 
-0.122953 -0.57788 -7.17365 
-0.234179 -0.386354 -7.17402 
-0.254579 -0.789006 -7.29622 
-0.355351 -0.823179 -7.18423 
-0.217985 -0.875055 -7.32894 
-0.299972 -0.698502 -7.28143 
0.0311936 -0.556766 -7.16955 
-0.230575 -1.01689 -7.32101 
-0.340044 -0.938849 -7.2574 
-0.316948 -1.00131 -7.27042 
-0.17784 -0.877864 -7.32527 
-0.352125 -0.845795 -7.18645 
-0.217177 -0.377826 -7.1891 
-0.217177 -0.377826 -7.1891 
-0.234744 -0.916581 -7.35139 
-0.335875 -0.888319 -7.23315 
-0.281338 -0.909009 -7.32358 
-0.0600492 -0.882734 -7.27324 
-0.0222938 -0.782921 -7.23016 
-0.19218 -0.545855 -7.13919 
-0.268944 -0.89709 -7.30478 
-0.0958356 -0.940703 -7.28814 
-0.219294 -0.390642 -7.18171 
-0.109587 -0.994958 -7.30749 
-0.273124 -0.949837 -7.31663 
-0.260672 -0.890715 -7.2983 
-0.145946 -0.454338 -7.1869 
-0.0427889 -0.947502 -7.2586 
-0.218912 -0.363516 -7.19021 
-0.190091 -1.12085 -7.2993 
-0.169952 -0.732191 -7.28768 
-0.206154 -0.567368 -7.1432 
-0.136112 -0.992304 -7.31028 
0.0077892 -0.552511 -7.17633 
0.0077892 -0.552511 -7.17633 
-0.361544 -0.89334 -7.19948 
-0.366942 -0.897454 -7.20219 
-0.190956 -0.912399 -7.33697 
-0.224595 -0.385467 -7.19352 
-0.250962 -0.872436 -7.29741 
-0.218281 -0.398338 -7.18078 
-0.323516 -0.726542 -7.25872 
-0.329778 -0.782191 -7.3116 
-0.0839219 -0.904523 -7.27376 
-0.00255841 -1.11767 -7.17949 
-0.10875 -0.602594 -7.18732 
-0.213921 -0.400949 -7.18005 
-0.334769 -0.860256 -7.22861 
-0.354121 -0.912027 -7.25466 
-0.171481 -1.14989 -7.2929 
-0.201688 -0.397738 -7.19261 
-0.138722 -0.415644 -7.21038 
-0.143053 -0.551193 -7.16806 
-0.00687793 -0.866399 -7.24604 
-0.346094 -0.912546 -7.25367 
-0.315526 -0.928604 -7.27655 
-0.117581 -0.522071 -7.17907 
-0.118936 -0.412411 -7.21899 
-0.247611 -0.900815 -7.33802 
-0.247611 -0.900815 -7.33802 
-0.0465788 -0.87986 -7.26571 
-0.234974 -0.380067 -7.17908 
-0.207856 -1.02253 -7.32215 
-0.0944276 -0.538637 -7.16717 
-0.19074 -1.00796 -7.32491 
-0.33184 -0.886172 -7.23779 
-0.140065 -0.383689 -7.22833 
-0.0730152 -0.61408 -7.17154 
-0.0242694 -1.08554 -7.22125 
-0.218633 -0.893859 -7.33927 
-0.140571 -0.360971 -7.23635 
-0.027236 -1.03791 -7.24215 
-0.0571145 -0.799126 -7.24114 
-0.124288 -0.605093 -7.1984 
-0.0969696 -0.953943 -7.29092 
-0.0531169 -0.874543 -7.26528 
-0.138877 -0.395208 -7.22224 
-0.0219507 -1.08881 -7.21992 
-0.0231941 -1.08149 -7.2208 
-0.0492628 -1.00557 -7.26738 
-0.203926 -0.529586 -7.10411 
-0.0184821 -0.798844 -7.22971 
-0.216436 -0.396654 -7.18749 
-0.0288532 -1.04612 -7.24097 
-0.0449514 -1.00793 -7.26498 
-0.0580553 -0.999661 -7.27805 
-0.304793 -0.996976 -7.27733 
-0.0517529 -0.929602 -7.26129 
-0.0858391 -0.543529 -7.16804 
-0.0612985 -0.772732 -7.24309 
-0.029574 -1.12897 -7.20928 
-0.326978 -0.893223 -7.24039 
-0.120782 -0.414979 -7.21608 
-0.165362 -1.14605 -7.28976 
-0.165362 -1.14605 -7.28976 
-0.220738 -0.368784 -7.19044 
-0.171802 -0.724979 -7.28796 
-0.138989 -0.404575 -7.21386 
-0.212698 -0.553196 -7.10365 
-0.173221 -0.729205 -7.28847 
-0.0480966 -0.929429 -7.2584 
-0.264476 -0.995377 -7.31037 
-0.331749 -0.931071 -7.27107 
-0.136885 -0.981431 -7.30865 
-0.0790405 -1.14367 -7.24095 
-0.0315323 -0.929323 -7.24399 
-0.0358162 -1.05983 -7.2438 
-0.0664142 -0.925412 -7.27056 
-0.254463 -0.885824 -7.30482 
-0.300209 -0.856553 -7.27787 
-0.154818 -0.433857 -7.20593 
-0.0812244 -0.774084 -7.25031 
-0.309102 -0.713618 -7.27521 
-0.0672392 -0.94085 -7.26698 
-0.357163 -0.948373 -7.22896 
-0.134349 -0.376946 -7.22874 
-0.134349 -0.376946 -7.22874 
-0.251218 -0.783758 -7.29633 
-0.19131 -0.863668 -7.31218 
-0.340747 -0.966442 -7.23815 
-0.0351263 -0.754185 -7.24145 
-0.0238916 -1.06815 -7.23021 
-0.179861 -0.889572 -7.33452 
-0.185321 -0.552045 -7.15147 
-0.149162 -0.480493 -7.18637 
-0.00696934 -1.05229 -7.2153 
0.137736 -0.302348 -7.36633 
-0.238897 -1.03676 -7.31942 
-0.341007 -0.987576 -7.23622 
-0.0429782 -0.927279 -7.2522 
-0.104064 -0.935401 -7.26431 
-0.202294 -1.08352 -7.30878 
-0.104171 -0.300469 -7.28001 
-0.341881 -0.974412 -7.23782 
-0.214893 -1.14633 -7.2996 
-0.243913 -1.06525 -7.30705 
-0.00330917 -0.922253 -7.21114 
-0.356292 -0.957042 -7.22158 
-0.179119 -0.416525 -7.19878 
-0.323078 -0.906048 -7.28016 
-0.108086 -0.349292 -7.2539 
-0.106762 -0.632004 -7.20124 
-0.170392 -0.544281 -7.15191 
-0.01266 -0.889225 -7.26412 
-0.243311 -1.16211 -7.30012 
-0.0233603 -1.04299 -7.23642 
-0.120002 -0.798679 -7.28385 
-0.0926874 -0.972282 -7.29213 
-0.17926 -0.450949 -7.19086 
-0.077476 -0.61381 -7.17314 
-0.0266797 -1.07324 -7.22822 
-0.078163 -0.945215 -7.28198 
-0.00462325 -1.06763 -7.20622 
-0.0199033 -0.921243 -7.23032 
0.00183931 -0.824312 -7.23011 
-0.284607 -1.11144 -7.29739 
-0.0373713 -0.948842 -7.25652 
-0.227179 -0.726472 -7.19181 
-0.235036 -0.48568 -7.06481 
0.12346 -0.0192755 -7.36991 
0.0810744 -0.22155 -7.36205 
-0.0917546 -0.229332 -7.34747 
-0.0314179 -0.667476 -7.14324 
-0.063597 -0.216983 -7.36996 
0.0701034 -0.254836 -7.38068 
-0.281863 -0.170678 -7.24759 
0.0484645 -0.0582464 -7.41122 
-0.319784 -0.031946 -7.28718 
-0.350496 -0.0951718 -7.21224 
-0.216224 -0.15859 -7.28767 
0.331125 -0.422777 -7.31934 
-0.0367764 -0.268006 -7.32144 
-0.0854051 -0.513402 -7.18756 
-0.28248 -0.898903 -7.29737 
0.286116 -0.419162 -7.34472 
-0.221474 -0.910167 -7.31028 
-0.204186 -0.133827 -7.30042 
-0.191802 -0.433826 -7.18552 
-0.22659 -0.73302 -7.26425 
-0.192097 -0.955664 -7.31297 
-0.254612 -0.885666 -7.30212 
-0.236325 -0.0518194 -7.32052 
-0.0315342 -0.00831373 -7.43569 
-0.0667755 -0.82099 -7.25422 
0.306278 -0.234506 -7.40428 
-0.290209 -0.888234 -7.25067 
-0.236733 -0.721316 -7.28453 
-0.142817 -0.425117 -7.20483 
-0.0433249 -0.487877 -7.20757 
-0.0433249 -0.487877 -7.20757 
-0.0497921 -0.587855 -7.14376 
-0.0179988 -1.12177 -7.19794 
0.0347892 -0.232386 -7.39604 
-0.19796 -0.701194 -7.27452 
-0.357045 0.0601752 -7.29598 
0.213383 0.00084218 -7.18206 
-0.0559181 -0.772847 -7.25344 
-0.133868 -0.925343 -7.30247 
-0.102804 -1.08126 -7.26558 
-0.142552 -0.173931 -7.33203 
-0.308671 -0.877814 -7.26757 
-0.00268559 -0.943063 -7.21283 
0.165934 -0.36003 -7.36353 
0.170508 -0.124038 -7.40371 
-0.154796 -0.217675 -7.28655 
0.135183 -0.0730265 -7.37181 
0.106805 -0.128945 -7.3801 
-0.0595818 -0.555563 -7.16631 
0.164211 -0.331848 -7.36864 
-0.0105976 -0.92754 -7.22404 
-0.232538 -0.988973 -7.3231 
-0.13503 -1.12018 -7.28216 
-0.101239 -0.592109 -7.18346 
-0.114843 -0.918534 -7.29092 
0.184676 -0.455877 -7.33516 
-0.35849 0.0283527 -7.28268 
-0.093489 -0.448347 -7.20631 
-0.261104 -0.0324685 -7.32272 
0.134394 -0.0951224 -7.36627 
0.134394 -0.0951224 -7.36627 
-0.311896 -0.733 -7.27555 
0.0398128 -0.221493 -7.38503 
-0.219953 -0.991771 -7.32806 
-0.279281 -0.785025 -7.30255 
0.162292 -0.0992765 -7.39906 
-0.251036 -0.989014 -7.31453 
-0.117645 -0.525983 -7.17653 
-0.226277 -0.856463 -7.31038 
-0.273095 -0.702482 -7.27941 
-0.0715134 -0.909596 -7.26421 
-0.241612 -0.978224 -7.32613 
-0.258807 -0.669125 -7.26063 
-0.0439864 -0.831936 -7.23284 
-0.29005 -0.65903 -7.26765 
0.195125 -0.44929 -7.34559 
-0.0352329 -0.0301519 -7.43847 
-0.223032 -1.00868 -7.32606 
-0.253882 -0.657375 -7.27935 
-0.0543996 -0.759888 -7.23917 
-0.0543996 -0.759888 -7.23917 
-0.113579 -0.240048 -7.31999 
-0.253037 -0.909777 -7.33491 
-0.0465787 -0.551562 -7.17724 
-0.0465787 -0.551562 -7.17724 
-0.290056 -0.143324 -7.2566 
-0.290056 -0.143324 -7.2566 
0.0219067 -0.662314 -7.05128 
-0.232613 -0.873277 -7.31451 
0.375223 -0.270034 -7.36743 
-0.2666 -0.262214 -7.22015 
-0.0669831 -0.192248 -7.38173 
-0.408511 -0.076536 -7.14677 
-0.14139 -0.794175 -7.30664 
0.0171617 0.0378024 -7.46035 
0.00239563 -0.0174244 -7.44733 
0.0375439 0.0489009 -7.45165 
0.0327014 0.0173703 -7.45638 
-0.121491 -0.707301 -7.26946 
-0.131506 -0.618851 -7.22752 
-0.0634998 -0.903468 -7.26342 
0.182275 -0.146682 -7.39871 
-0.157012 -0.931809 -7.31743 
0.276224 -0.306831 -7.38055 
-0.230403 -0.477478 -7.10515 
0.330005 -0.382729 -7.33542 
-0.201603 -0.678533 -7.2838 
-0.26185 -0.905578 -7.33019 
-0.285098 0.0225796 -7.33317 
-0.285098 0.0225796 -7.33317 
-0.0410552 -0.856209 -7.24517 
-0.0345932 -0.789703 -7.23407 
-0.0897485 -0.905432 -7.27741 
-0.0428633 -0.21119 -7.38716 
-0.0951705 -1.00106 -7.29771 
0.28771 -0.324116 -7.37936 
-0.220333 -1.02507 -7.32372 
-0.0400695 0.031707 -7.44547 
0.0541969 0.0370009 -7.43678 
-0.238716 -1.03576 -7.31913 
-0.171788 -0.332224 -7.2324 
-0.1359 -0.862382 -7.30606 
-0.297972 -0.893481 -7.28633 
-0.187884 -1.14936 -7.29469 
-0.000963448 -0.574014 -7.15574 
0.226585 -0.171636 -7.42065 
-0.0745585 0.0461323 -7.44471 
-0.207002 -0.807022 -7.3129 
0.0053005 -0.258572 -7.36377 
-0.231543 -0.709757 -7.28654 
-0.00972037 -0.65775 -7.12185 
-0.00980989 -0.658338 -7.1175 
0.00732761 -0.54439 -7.18194 
0.27199 -0.172649 -7.39717 
-0.308585 -0.229845 -7.17897 
0.182226 -0.434923 -7.34256 
0.334916 -0.213956 -7.38593 
-0.257708 -0.193629 -7.25468 
-0.0308837 -0.766598 -7.24036 
0.0847888 0.045557 -7.39758 
-0.0349424 -0.582719 -7.14901 
0.335793 -0.223201 -7.37896 
-0.0440202 -0.198713 -7.38163 
-0.206563 -1.09216 -7.30181 
0.0915543 -0.0385423 -7.40275 
-0.288077 -0.764473 -7.29039 
0.219761 -0.263069 -7.39532 
-0.258806 -0.269777 -7.2307 
-0.164646 -1.12067 -7.29877 
0.274669 -0.374095 -7.36593 
-0.380002 0.0719541 -7.28494 
-0.208692 -0.887027 -7.33365 
0.300002 -0.34722 -7.36566 
-0.25593 -0.262506 -7.22552 
-0.212431 -0.882212 -7.32448 
-0.212431 -0.882212 -7.32448 
-0.0489128 -0.867222 -7.2525 
-0.0518039 -0.569239 -7.15693 
0.14382 -0.0561507 -7.35397 
-0.0379592 -0.964884 -7.25261 
-0.368071 0.0583463 -7.28758 
-0.0183986 -0.842121 -7.24 
-0.193582 -0.854081 -7.3204 
-0.193582 -0.854081 -7.3204 
-0.2224 0.0181471 -7.35924 
-0.126306 -0.144068 -7.35325 
-0.0551542 0.0152998 -7.45125 
-0.236282 -0.225661 -7.25466 
-0.131497 -0.261752 -7.28736 
0.139497 -0.0168081 -7.34254 
-0.17927 -0.557566 -7.15797 
-0.433449 0.00217224 -7.16788 
0.153261 0.0362559 -7.29396 
-0.213449 -0.665958 -7.2825 
-0.259094 -0.78442 -7.28686 
-0.141892 -0.581776 -7.19798 
0.0143056 -0.120208 -7.42014 
-0.230989 -0.873533 -7.32085 
0.00734685 -0.267211 -7.35475 
0.0490256 0.0325524 -7.44177 
0.236533 -0.356729 -7.37464 
-0.264531 -0.865339 -7.28273 
-0.153802 -0.258961 -7.2802 
-0.009317 -0.869137 -7.24849 
-0.0340528 -0.0194999 -7.44249 
0.198952 -0.495955 -7.31434 
0.328035 -0.202653 -7.39523 
-0.197482 -0.119914 -7.31226 
-0.0327812 -0.176843 -7.38565 
-0.360654 0.00989995 -7.26945 
-0.208858 -1.08394 -7.30739 
0.145186 0.0436548 -7.30036 
-0.0504767 -0.81237 -7.23156 
-0.211275 -0.814542 -7.31838 
0.0444016 0.0284145 -7.44623 
-0.0829754 -0.911424 -7.27482 
-0.189316 -1.06489 -7.31244 
-0.362738 -0.00564587 -7.25412 
-0.312186 -0.706275 -7.26172 
0.305063 -0.215414 -7.40723 
-0.0679127 -0.203399 -7.3716 
0.269477 -0.3291 -7.37644 
0.269491 -0.328954 -7.37958 
-0.0651433 -0.541233 -7.17845 
-0.148827 -0.263447 -7.27585 
0.188035 -0.0728868 -7.29647 
-0.0257449 -0.0533778 -7.44035 
0.0373095 0.0231558 -7.46023 
-0.0143937 -1.06464 -7.21827 
-0.0144067 -1.0647 -7.21944 
-0.288385 -0.241011 -7.19646 
-0.325028 -0.0509094 -7.26478 
-0.243237 -0.746714 -7.29657 
0.186705 0.0101903 -7.24698 
-0.231889 -0.364991 -7.18557 
-0.0225908 -0.288749 -7.32817 
0.00346565 -0.929243 -7.20335 
-0.281266 -0.0369116 -7.31153 
-0.0140237 -0.204252 -7.38034 
-0.131214 -0.318132 -7.25355 
-0.363979 0.0486776 -7.28669 
0.0371352 -0.193355 -7.39906 
-0.0209974 0.028375 -7.4577 
0.184045 -0.428281 -7.3453 
-0.026923 -0.579471 -7.15605 
-0.261322 -0.833597 -7.29606 
0.271935 -0.315534 -7.38605 
0.271935 -0.315534 -7.38605 
0.170476 -0.429277 -7.35549 
-0.187769 -0.181859 -7.29608 
-0.217863 -0.532186 -7.07388 
0.279797 -0.33403 -7.3803 
0.0185979 0.0670452 -7.44967 
-0.0262295 -0.76223 -7.23089 
0.310318 -0.21173 -7.40587 
0.235994 -0.375438 -7.36748 
0.214593 -0.266026 -7.39287 
0.0262606 -0.280065 -7.34276 
-0.262921 -0.255024 -7.22308 
-0.136176 -0.606054 -7.20161 
-0.036062 -0.893209 -7.25939 
0.0354345 -0.257157 -7.35773 
-0.157539 -0.348324 -7.2302 
-0.381535 0.0622101 -7.27658 
0.123674 -0.0464655 -7.36797 
-0.0563096 -0.978739 -7.2736 
-0.0206639 0.0494166 -7.45471 
0.201231 -0.143818 -7.4189 
-0.140895 -0.721074 -7.2813 
-0.0212218 -0.891804 -7.27445 
0.0213926 -1.11234 -7.14623 
-0.306019 -0.791845 -7.31169 
-0.0685314 -0.893593 -7.26177 
-0.232727 -0.748696 -7.29964 
-0.0293512 -1.12971 -7.20772 
-0.261237 -0.901796 -7.30169 
-0.105906 -0.0297385 -7.42502 
-0.0337221 -0.0789356 -7.42241 
0.231836 -0.134281 -7.37767 
-0.0468322 -0.824453 -7.23265 
0.0568301 0.0540697 -7.42808 
-0.039389 -0.836559 -7.23142 
-0.0342237 -0.0559793 -7.4337 
-0.378928 0.0301082 -7.26112 
-0.379012 0.0299878 -7.26057 
0.275227 -0.320774 -7.38325 
-0.253858 -0.875561 -7.29773 
0.236448 -0.0482285 -7.1883 
0.0104893 -0.942878 -7.19775 
0.29813 -0.222092 -7.4096 
-0.13874 -0.762339 -7.29268 
-0.198239 -0.615967 -7.26407 
-0.204145 -0.113564 -7.31285 
-0.289085 0.0301568 -7.33789 
-0.0173526 0.0536521 -7.45559 
-0.333041 -0.961903 -7.24837 
-0.0609195 -0.975648 -7.26976 
-0.146439 -0.587901 -7.19335 
-0.0261671 -0.974312 -7.26582 
-0.078354 -0.985159 -7.29006 
-0.039672 -0.912343 -7.24576 
-0.132371 -0.0798074 -7.37691 
0.15106 -0.00389113 -7.31365 
0.150934 -0.00399484 -7.3142 
-0.0546827 -0.211073 -7.38045 
-0.215651 -0.811146 -7.31628 
-0.283699 0.0341035 -7.33926 
-0.283699 0.0341035 -7.33926 
-0.0472147 -0.754548 -7.24699 
-0.170663 -0.59919 -7.21565 
-0.397192 -0.072816 -7.15993 
0.277639 -0.246279 -7.40778 
-0.147951 -0.535239 -7.15671 
-0.148308 -0.457678 -7.19838 
0.300599 -0.492782 -7.29024 
0.235648 -0.207794 -7.40862 
-0.116072 -0.897837 -7.29312 
-0.190497 -0.386635 -7.20624 
-0.190497 -0.386635 -7.20624 
-0.0594422 -0.984504 -7.28006 
0.38772 -0.275726 -7.3662 
-0.00836818 0.0510142 -7.46485 
-0.152829 -0.45058 -7.19707 
-0.131926 -0.999729 -7.31505 
-0.253817 -0.254318 -7.23128 
0.32081 -0.221188 -7.39883 
-0.0538744 -0.540425 -7.18418 
-0.358905 -0.0116934 -7.2691 
-0.262366 -0.881628 -7.28873 
-0.197346 -0.622071 -7.26178 
-0.0265473 -0.204939 -7.38727 
-0.314912 -0.0412267 -7.28262 
-0.133426 -0.7616 -7.28796 
-0.0384053 -0.119299 -7.41043 
-0.24501 -0.71832 -7.29586 
0.32891 -0.401336 -7.33269 
0.197688 -0.205958 -7.40092 
-0.346403 -0.910994 -7.2567 
0.00469912 -0.117308 -7.42379 
0.274014 -0.332429 -7.38049 
0.274014 -0.332429 -7.38049 
0.238389 -0.194679 -7.42119 
0.00273373 -0.872296 -7.25084 
0.0120774 -0.195234 -7.3963 
-0.208687 0.0272979 -7.37791 
-0.185396 -0.723041 -7.29302 
0.330094 -0.417044 -7.32692 
-0.0475342 -0.234146 -7.37122 
-0.0339083 -0.858272 -7.24743 
0.267645 -0.247763 -7.40027 
-0.183048 -0.159527 -7.3052 
0.0532973 -0.342533 -7.33727 
0.150415 0.00927767 -7.30719 
-0.221584 -0.750633 -7.29699 
-0.425846 -0.344254 -6.92377 
-0.0586277 -0.961734 -7.27592 
-0.247394 -0.212306 -7.2453 
-0.302575 -0.130527 -7.25125 
0.054714 -0.338289 -7.3357 
0.272189 -0.244178 -7.40872 
-0.119658 -0.205825 -7.33191 
-0.248514 -0.0544962 -7.31639 
-0.158704 -0.208356 -7.29756 
-0.0447339 -0.775918 -7.23539 
-0.220071 -0.69911 -7.29057 
-0.493645 0.0550987 -7.11445 
-0.347165 0.0079952 -7.27818 
0.230545 -0.228743 -7.40603 
-0.130344 -0.700421 -7.27076 
-0.0925553 -0.764302 -7.25985 
-0.0851951 -0.767065 -7.25662 
-0.254027 -0.789298 -7.29137 
-0.254027 -0.789298 -7.29137 
-0.285619 -0.943336 -7.25894 
-0.0709235 -0.0631565 -7.42026 
-0.183693 -0.782019 -7.28579 
0.110435 -0.20368 -7.38608 
-0.271814 -0.699859 -7.26822 
-0.0469336 -0.789502 -7.2381 
-0.126987 -0.75074 -7.26888 
-0.273442 -1.08663 -7.29636 
-0.217625 -0.627909 -7.2745 
-0.11857 -0.477055 -7.18747 
-0.328062 -0.916158 -7.2775 
-0.187065 -0.527151 -7.12913 
-0.187065 -0.527151 -7.12913 
-0.28101 -0.612873 -7.24164 
-0.297977 -0.737943 -7.28349 
-0.209955 -0.930762 -7.32865 
-0.164387 -0.548956 -7.16221 
-0.222621 -0.519142 -7.07998 
-0.220702 -1.08704 -7.30103 
-0.0317952 -0.506323 -7.19699 
-0.0482047 -1.09119 -7.23828 
-0.201336 -0.678076 -7.2861 
-0.216463 -0.959626 -7.33134 
-0.230692 -0.905632 -7.34344 
-0.265373 -0.842319 -7.29633 
-0.313461 -0.911117 -7.28373 
-0.327518 -0.79964 -7.30235 
0.223926 -0.513284 -7.28988 
-0.356021 -0.949691 -7.23013 
-0.129978 -0.727188 -7.2772 
-0.0727737 -0.719162 -7.23198 
-0.261612 -0.905866 -7.33259 
-0.0325893 -0.793795 -7.23135 
-0.231057 -0.915467 -7.33111 
-0.026475 -0.530952 -7.18881 
-0.026475 -0.530952 -7.18881 
-0.316924 -0.929862 -7.27532 
-0.359339 -0.940302 -7.23463 
0.0153976 -0.89048 -7.16808 
-0.278995 -0.995666 -7.29274 
-0.152523 -0.547798 -7.15662 
-0.289417 -0.765718 -7.28365 
-0.295277 -0.992749 -7.2865 
-0.042907 -0.691969 -7.1668 
-0.0735406 -0.666253 -7.18478 
-0.249312 -0.773375 -7.29575 
-0.0985782 -0.904683 -7.27929 
-0.0985782 -0.904683 -7.27929 
-0.222754 -0.804443 -7.31421 
-0.270377 -0.833518 -7.29576 
-0.0339947 -0.564322 -7.17075 
-0.266289 -0.876856 -7.28423 
-0.0250772 -0.570711 -7.17067 
-0.21586 -0.0448049 -7.33298 
-0.236277 -0.919412 -7.34605 
-0.00334555 -0.905907 -7.20652 
-0.052383 -0.842191 -7.23644 
-0.258954 -0.749816 -7.29478 
0.00887028 -0.927995 -7.19018 
-0.229985 -0.672065 -7.28157 
-0.246993 -0.65174 -7.28056 
-0.219324 -1.01188 -7.32062 
0.000468131 -0.947626 -7.20641 
-0.0189267 -0.798313 -7.23434 
-0.228828 -0.759941 -7.30131 
-0.243408 -0.738316 -7.29803 
0.00784386 -0.931717 -7.19535 
-0.184615 -0.915428 -7.33419 
-0.302136 -1.15376 -7.30416 
-0.0872519 -0.899608 -7.27549 
-0.0178211 -0.816553 -7.23259 
-0.00532611 -0.931326 -7.21843 
-0.0655326 -0.96309 -7.27626 
-0.184555 -1.08272 -7.31254 
-0.197875 -0.798062 -7.31731 
-0.246024 -0.645728 -7.27976 
-0.175084 -0.576724 -7.19471 
-0.244399 -1.04457 -7.31374 
-0.213568 -1.0064 -7.32933 
-0.228756 -1.03184 -7.31971 
-0.0157547 -0.524531 -7.19026 
-0.291285 -0.718628 -7.28825 
-0.0138392 -1.12447 -7.19652 
-0.151767 -0.606981 -7.20844 
-0.323712 -0.906366 -7.27746 
-0.323988 -0.906411 -7.27651 
-0.0710807 -0.978528 -7.27283 
-0.193602 -1.08267 -7.31216 
-0.207444 -1.14473 -7.29861 
-0.293027 -0.727756 -7.28643 
-0.170492 -0.542283 -7.15309 
-0.0463208 -0.956767 -7.26286 
-0.335696 -0.781836 -7.31034 
-0.226037 -1.00817 -7.33062 
-0.281487 -1.05891 -7.30126 
-0.301453 -0.719827 -7.28395 
-0.213104 -0.837657 -7.31732 
-0.16352 -0.443159 -7.1953 
-0.170256 -0.114174 -7.33774 
0.13807 -0.302926 -7.36671 
0.162057 0.0137214 -7.28767 
-0.286958 0.0168219 -7.32815 
-0.0285264 -0.288363 -7.32603 
-0.341424 -0.989401 -7.23373 
-0.14864 -0.473432 -7.18934 
0.343541 -0.212708 -7.37458 
0.258574 -0.0381362 -7.13054 
0.165177 -0.0594496 -7.32595 
-0.0929309 -0.763816 -7.25705 
0.0172906 -0.874896 -7.16191 
0.104819 -0.0632979 -7.39221 
0.238171 -0.0585418 -7.18331 
-0.158692 -0.455924 -7.19251 
-0.138819 -0.26706 -7.274 
0.0220812 -0.870955 -7.15233 
-0.156105 -1.1449 -7.28584 
-0.236186 -1.02619 -7.31859 
0.206733 -0.142307 -7.41438 
0.148971 -0.00976701 -7.32123 
-0.0182509 -0.842203 -7.24125 
-0.056671 -0.928635 -7.26578 
0.00637242 -0.90691 -7.19543 
0.208328 -0.137564 -7.41145 
0.167135 -0.00828973 -7.28675 
3.29825e-005 -0.913088 -7.20348 
-0.0980114 -0.617032 -7.18547 
0.146098 0.0300133 -7.30191 
-0.288367 -0.0406073 -7.29652 
-0.214156 0.0202683 -7.36522 
-0.287027 -0.198802 -7.22216 
0.109035 -0.104757 -7.38305 
-0.016081 -0.942758 -7.23223 
-0.110297 -0.469423 -7.20193 
0.154994 0.00384275 -7.2991 
-0.0165037 -0.828065 -7.23275 
0.110265 -0.224511 -7.38144 
-0.277922 -0.0232306 -7.31301 
-0.277922 -0.0232306 -7.31301 
0.00489993 -0.916687 -7.19924 
0.086918 0.00610565 -7.41578 
-0.221172 0.0120857 -7.35368 
0.155723 0.0150707 -7.29908 
-0.0389905 -0.17909 -7.38691 
0.226847 -0.241993 -7.4023 
-0.252744 -0.189524 -7.25215 
-0.31547 -0.0173162 -7.29264 
-0.296648 -0.0371985 -7.29485 
-0.206066 -0.673421 -7.28822 
0.19586 -0.484678 -7.32442 
-0.0206977 -0.586574 -7.14884 
-0.372029 0.0176876 -7.25747 
0.122827 -0.0146291 -7.3674 
-0.28154 -0.659034 -7.26573 
-0.219704 -1.14871 -7.21842 
0.176629 -0.442818 -7.34582 
-0.0318581 -0.671541 -7.1401 
-0.171275 -0.910421 -7.32112 
-0.129623 -0.501736 -7.18526 
-0.245301 -0.892843 -7.31543 
-0.0520452 -0.918814 -7.259 
-0.280638 -0.879135 -7.27352 
-0.104248 -0.797916 -7.25518 
-0.128684 -1.17871 -7.17928 
-0.100176 -0.525355 -7.18608 
-0.213434 -0.70665 -7.28973 
-0.28262 -0.801512 -7.30551 
-0.269212 -0.816003 -7.31432 
-0.197134 -0.699645 -7.2722 
-0.278312 -0.840837 -7.29938 
-0.224017 -0.893153 -7.32595 
-0.058316 -0.802762 -7.25138 
-0.205379 -0.966534 -7.318 
0.259781 -0.154878 -7.34679 
-0.240199 -0.764496 -7.29325 
-0.0845506 -0.720326 -7.24639 
-0.347437 -1.00242 -7.2242 
-0.158378 -0.53832 -7.15804 
-0.256717 -0.726447 -7.2844 
-0.0183898 -0.695069 -7.11549 
-0.311665 -0.93435 -7.28057 
-0.275817 -0.892522 -7.29577 
-0.14328 -0.566136 -7.174 
-0.143043 -0.566096 -7.17477 
-0.179342 -0.892416 -7.33506 
-0.160121 -0.883291 -7.31886 
-0.0028056 -0.563313 -7.1654 
-0.029129 -0.554244 -7.17663 
-0.213283 -0.653652 -7.28307 
-0.193528 -0.823249 -7.32802 
-0.102791 -0.882205 -7.29029 
-0.223851 -0.697699 -7.2873 
0.0075215 -0.971135 -7.21619 
-0.170875 -0.533687 -7.14828 
-0.170875 -0.533687 -7.14828 
-0.324756 -1.01044 -7.25221 
-0.152154 -0.967744 -7.31942 
-0.234319 -0.626102 -7.25604 
-0.312364 -0.732164 -7.27124 
-0.0554759 -0.760217 -7.235 
-0.0544152 -0.759997 -7.23775 
-0.0238711 -0.588423 -7.16318 
-0.138512 -0.86855 -7.31406 
-0.299356 -1.00892 -7.28034 
0.178788 -0.480833 -7.32039 
-0.153599 -0.890224 -7.31 
-0.144745 -0.858951 -7.312 
0.0267718 -0.869165 -7.13241 
-0.294239 -0.771089 -7.29066 
-0.0343668 -0.872938 -7.24721 
-0.303331 -0.6806 -7.25625 
-0.0465564 -0.553496 -7.17447 
-0.116317 -1.14748 -7.25636 
-0.20636 -0.716291 -7.29401 
-0.206169 -0.716075 -7.29464 
-0.130004 -0.700257 -7.27185 
-0.0503884 -0.841211 -7.23403 
0.0420099 -1.01611 -7.14103 
-0.13602 -0.518559 -7.17117 
-0.114092 -0.544724 -7.16465 
-0.144378 -0.556816 -7.16542 
-0.0311151 -0.882483 -7.2372 
-0.0311151 -0.882483 -7.2372 
-0.199825 -0.843847 -7.32258 
-0.229014 -0.999598 -7.32407 
-0.0475637 -0.867208 -7.26309 
-0.239547 -0.684685 -7.28612 
-0.172114 -0.865605 -7.31886 
0.0396121 -0.987418 -7.14937 
-0.0324037 -0.79366 -7.23203 
-0.103745 -0.912545 -7.28225 
-0.0182917 -0.909773 -7.22774 
-0.000387578 -0.573274 -7.16011 
-0.134526 -0.816832 -7.30426 
-0.0100497 -0.869363 -7.24864 
0.234252 -0.506515 -7.30444 
-0.153442 -0.817281 -7.31001 
-0.196976 -0.883363 -7.32952 
-0.0320058 -0.765879 -7.23841 
-0.137962 -0.698698 -7.27658 
-0.0507238 -0.814006 -7.23092 
-0.0200618 -0.769006 -7.23369 
-0.145211 -0.613321 -7.20505 
-0.238171 -0.658674 -7.2782 
-0.180494 -0.971058 -7.31811 
-0.0411756 -0.794702 -7.2312 
-0.173053 -0.567631 -7.19167 
0.00720713 -0.608676 -7.14753 
-0.232332 -0.826397 -7.30723 
-0.198708 -0.718468 -7.29158 
-0.0196115 -0.869777 -7.2418 
-0.257212 -0.851606 -7.28549 
-0.23122 -0.654073 -7.28289 
-0.235628 -0.667828 -7.27746 
-0.185118 -0.55312 -7.15337 
-0.194171 -0.774942 -7.31351 
-0.276664 -0.824367 -7.30858 
-0.340109 -1.01576 -7.23356 
0.0378004 -1.01135 -7.0179 
-0.0229276 -0.86253 -7.24668 
-0.0586483 -0.984744 -7.28591 
0.0304694 -0.924216 -7.14584 
-0.300551 -0.885904 -7.28388 
-0.189151 -0.870463 -7.32186 
-0.0330231 -0.891597 -7.27526 
-0.082784 -0.960632 -7.27722 
-0.0100681 -0.826978 -7.23259 
-0.229792 -0.67214 -7.28191 
-0.0890745 -0.976931 -7.28532 
-0.148117 -0.938591 -7.31597 
0.0103211 -0.889542 -7.1811 
-0.0639411 -0.816587 -7.25151 
-0.172748 -0.937199 -7.32136 
-0.252685 -0.670015 -7.28363 
-0.274689 -0.71008 -7.2846 
-0.0587285 -0.81823 -7.24914 
-0.0183295 -0.972272 -7.25992 
-0.173174 -0.894813 -7.32921 
-0.099071 -0.540309 -7.16646 
-0.293334 -0.713125 -7.28336 
-0.0195072 -0.852944 -7.24604 
-0.311069 -0.919675 -7.283 
-0.147426 -0.812121 -7.31276 
-0.0547563 -0.856545 -7.2397 
-0.0160075 -0.600135 -7.14163 
-0.0740924 -0.61617 -7.16173 
-0.125477 -0.770696 -7.28303 
-0.125353 -0.770688 -7.28321 
-0.193527 -0.867034 -7.31816 
-0.0129378 -0.890028 -7.27063 
-0.179056 -0.556493 -7.15573 
0.00812401 -0.618143 -7.11681 
-0.262537 -0.873253 -7.2798 
0.234883 -0.158625 -7.41378 
-0.0654139 -0.840687 -7.2498 
-0.0374846 -0.955856 -7.25794 
-0.0619895 -0.975932 -7.26659 
-0.107313 -0.894132 -7.28491 
-0.276014 -0.739371 -7.29105 
-0.0833571 -0.912186 -7.27493 
-0.1041 -0.906536 -7.28166 
-0.110495 -0.535627 -7.16605 
-0.202016 -0.726588 -7.28595 
-0.0151906 -0.524349 -7.19271 
-0.268595 -0.744262 -7.29193 
-0.0312792 -0.929896 -7.24486 
-0.041218 -0.91357 -7.23894 
-0.0302528 -1.08583 -7.22394 
-0.026295 -0.964633 -7.24465 
-0.180675 -0.876399 -7.33458 
0.0483595 -1.06376 -7.00698 
-0.0567393 -0.859858 -7.2509 
-0.240293 -0.644264 -7.28208 
-0.0712269 -0.963332 -7.28145 
-0.130458 -0.896174 -7.29495 
-0.0366666 -0.909894 -7.239 
-0.105129 -0.567757 -7.16904 
-0.231768 -0.615496 -7.26515 
-0.055483 -0.984125 -7.26636 
0.0340797 -0.923616 -7.1367 
-0.0729042 -0.983469 -7.28386 
-0.281422 -0.739443 -7.29102 
-0.18507 -0.477057 -7.17896 
-0.189769 -0.99575 -7.32036 
-0.100267 -0.976392 -7.29429 
-0.0464257 -0.967586 -7.2611 
-0.244241 -0.879487 -7.30503 
-0.04234 -0.779771 -7.23637 
-0.0324903 -0.954979 -7.25188 
-0.356715 -0.881218 -7.21122 
0.0319014 -0.871386 -7.12095 
-0.181179 -0.440612 -7.19387 
-0.180366 -0.884416 -7.32642 
-0.115385 -0.593199 -7.18845 
-0.29852 -0.708248 -7.27699 
-0.1824 -0.756131 -7.29457 
-0.147984 -0.604184 -7.20507 
-0.0373524 -0.919425 -7.25398 
-0.0766528 -0.783191 -7.25023 
-0.0528488 -0.784646 -7.23589 
-0.0483992 -0.808882 -7.23107 
-0.226207 -0.665561 -7.28201 
-0.00110992 -0.880799 -7.25745 
-0.00147986 -0.880918 -7.25589 
-0.23377 -1.03324 -7.31884 
-0.0360233 -0.977784 -7.26204 
0.0431967 -1.09064 -7.08294 
-0.00243792 -0.970774 -7.23073 
-0.176331 -0.590583 -7.20964 
0.0148961 -0.825429 -7.10899 
-0.203784 -0.647048 -7.29034 
-0.0183412 -0.961141 -7.23562 
-0.232698 -0.679771 -7.28658 
-0.232698 -0.679771 -7.28658 
0.0336093 -0.872395 -7.10771 
-0.270916 -1.10717 -7.29501 
-0.110995 -0.890843 -7.28873 
-0.0982916 -0.61116 -7.18172 
-0.299885 -0.771429 -7.29144 
-0.341268 -1.02544 -7.22427 
-0.223883 -1.06059 -7.30889 
0.00297846 -0.906318 -7.20195 
-0.0231231 -0.925903 -7.23366 
-0.0781352 -0.976452 -7.28242 
-0.172648 -0.601382 -7.20022 
0.0382497 -0.889058 -7.10484 
-0.0937835 -0.563235 -7.17054 
-0.237566 -0.735605 -7.29871 
-0.142758 -0.835952 -7.31461 
-0.15864 -0.854312 -7.31588 
-0.315455 -0.689596 -7.25517 
-0.34718 -0.978166 -7.23252 
-0.136619 -0.719975 -7.27325 
-0.00687621 -0.906769 -7.21148 
-0.180826 -0.601175 -7.21094 
-0.014819 -0.878253 -7.2518 
-0.088448 -0.647205 -7.18975 
0.0350746 -0.987423 -7.15658 
0.0350746 -0.987423 -7.15658 
-0.224765 -0.791808 -7.31079 
0.00644331 -0.925391 -7.20123 
-0.210126 -0.678372 -7.28627 
-0.103139 -0.981945 -7.29588 
-0.132823 -0.562774 -7.17038 
-0.0426804 -0.959945 -7.26086 
0.0426691 -1.04415 -7.10356 
-0.174417 -0.742654 -7.28987 
0.038036 -1.03086 -7.13459 
-0.106279 -0.900527 -7.28732 
-0.105761 -0.900499 -7.28922 
-0.129302 -0.717335 -7.26985 
-0.222423 -0.612174 -7.25156 
-0.0497516 -0.943457 -7.2637 
0.0305521 -0.556116 -7.17661 
-0.155685 -0.918617 -7.31554 
-0.0267156 -1.0385 -7.24297 
-0.004484 -0.912044 -7.2084 
0.172501 0.0981186 -7.73904 
-0.171171 -0.531988 -7.14893 
-0.238607 -0.677324 -7.28376 
-0.166405 -0.857036 -7.30834 
-0.0126998 -1.11534 -7.19852 
-0.0126998 -1.11534 -7.19852 
-0.186322 -0.884049 -7.33787 
-0.0068773 -0.775033 -7.1024 
-0.0250794 -1.02843 -7.2398 
-0.0108382 -0.768158 -7.03804 
0.0386068 -1.01518 -7.13189 
-0.0612394 -0.941064 -7.2711 
0.0424666 -1.0083 -7.12354 
0.04254 -1.00827 -7.12384 
-0.226074 -1.00336 -7.31731 
-0.216387 -0.648741 -7.28465 
-0.112652 -0.759276 -7.27221 
-0.0862698 -0.75775 -7.25536 
-0.208439 -0.637856 -7.2786 
0.0241889 -0.943298 -7.17205 
0.00726977 -0.888425 -7.18592 
-0.0668702 -0.736817 -7.23091 
-0.0209323 -1.07529 -7.22607 
0.00743582 -0.552618 -7.17446 
-0.208989 -0.800973 -7.31658 
-0.23127 -0.853173 -7.31558 
-0.0467866 -0.980756 -7.27189 
-0.276154 -0.789142 -7.30696 
0.0109948 -0.623739 -7.11034 
-0.165848 -0.89818 -7.32589 
-0.226755 -0.880755 -7.30974 
-0.224917 -0.879433 -7.31545 
-0.0696532 -0.996788 -7.27296 
0.2814 0.0552863 -7.0575 
-0.23666 -1.02589 -7.3173 
-0.154232 -0.511985 -7.17372 
0.227496 -0.493065 -7.3255 
-0.214482 -0.67664 -7.28639 
0.244719 -0.0348056 -7.15644 
0.0701048 -0.202315 -7.40386 
-0.118143 -1.05939 -7.23086 
-0.121936 -0.808761 -7.27498 
-0.335594 -0.879963 -7.24521 
-0.220391 -0.728647 -7.28543 
0.0461941 -1.04743 -7.03911 
-0.129157 -0.541207 -7.15339 
-0.254031 -0.828658 -7.29403 
-0.117558 -0.603885 -7.1853 
-0.0360031 -0.726675 -7.16775 
-0.276004 -0.982573 -7.30199 
0.0240212 -0.922625 -7.15411 
0.0106146 -1.11045 -7.16517 
-0.222174 -0.678295 -7.28327 
0.0441811 -1.0549 -7.10083 
-0.239249 -1.0576 -7.30946 
-0.314068 -0.747697 -7.27414 
0.015407 -0.835497 -7.12793 
-0.0111806 -0.89713 -7.2601 
-0.178088 -0.404048 -7.19789 
-0.329614 -1.05682 -7.23731 
-0.00617395 -0.590014 -7.14819 
-0.207273 -1.09205 -7.30496 
-0.287351 -0.78977 -7.31966 
-0.193276 -0.854245 -7.3226 
0.229322 -0.484778 -7.31181 
-0.172699 -0.844523 -7.32164 
-0.223268 -0.593133 -7.23156 
-0.0103944 -0.753145 -7.08575 
-0.218749 -1.11225 -7.30042 
-0.0507375 -0.792648 -7.24243 
-0.0571163 -0.979621 -7.27005 
0.00835015 -0.853896 -7.16694 
0.00308928 -0.803656 -7.09458 
-0.179214 -0.746935 -7.28793 
0.040388 -1.02433 -7.136 
0.0399068 -1.02477 -7.13409 
-0.307008 -0.926876 -7.28596 
-0.0145852 -0.812532 -7.23245 
-0.0459274 -0.790339 -7.23808 
0.22889 -0.540105 -7.25156 
-0.216162 -0.915499 -7.33793 
0.219687 -0.490292 -7.31874 
-0.0763389 -0.897757 -7.27284 
-0.172202 -0.851323 -7.31791 
-0.263959 -0.895035 -7.30861 
-0.118703 -0.844346 -7.29719 
-0.219275 -1.07082 -7.30799 
-0.143562 -1.00841 -7.31372 
-0.0762824 -0.647243 -7.17542 
-0.0301642 -1.12945 -7.20726 
0.002221 -0.824088 -7.23318 
-0.272176 -0.725449 -7.29366 
-0.209249 -0.848321 -7.3163 
0.0305518 -0.556117 -7.17661 
-0.0247843 -1.08225 -7.21679 
-0.0291353 -0.956385 -7.24641 
0.012609 -0.824809 -7.11928 
0.0315426 -0.988859 -7.16763 
-0.212257 -0.799134 -7.31981 
0.0258699 -0.857928 -7.12894 
-0.18249 -0.887536 -7.33838 
-0.221629 -0.859621 -7.31672 
-0.286693 -0.722249 -7.28901 
-0.0245641 -0.728629 -7.15137 
-0.262172 -0.76486 -7.28939 
-0.127066 -1.01487 -7.34428 
-0.0334748 -1.08334 -7.23054 
-0.0254394 -0.957799 -7.24499 
-0.178393 -0.491746 -7.16863 
0.0210803 -0.6608 -7.04483 
-0.0216191 -1.02503 -7.24369 
-0.00468587 -0.784974 -7.10534 
-0.00468587 -0.784974 -7.10534 
-0.0759563 -0.989159 -7.27938 
-0.0160762 -1.00148 -7.2416 
-0.183349 -0.869548 -7.319 
0.0178277 -0.824164 -7.08922 
-0.129136 -0.710295 -7.27004 
0.0107827 -0.861557 -7.17237 
-0.0436875 -0.915741 -7.25024 
0.00630301 -0.647866 -7.10444 
-0.264465 -0.823061 -7.29715 
0.0240792 -0.849402 -7.13033 
-0.236145 -0.768692 -7.29199 
-0.347803 -0.954075 -7.22877 
-0.00512715 -0.885792 -7.26406 
-0.22477 -0.86256 -7.31824 
0.0149701 -0.954675 -7.20508 
0.0023543 -0.956904 -7.21519 
-0.0556948 -0.793332 -7.24068 
-0.29805 -0.614584 -7.23535 
-0.164876 -1.15148 -7.28894 
0.31032 -0.469547 -7.29931 
-0.243907 -1.11783 -7.29949 
-0.0470503 -0.878027 -7.26316 
-0.0540065 -0.976165 -7.26802 
-0.0834417 -0.642313 -7.18229 
0.00810013 -1.11539 -7.16596 
-0.261237 -0.754967 -7.29077 
-0.0466179 -0.945265 -7.26155 
-0.0284405 -0.927835 -7.23782 
-0.225051 -0.995746 -7.32253 
0.0390505 -0.934633 -7.14593 
0.0390505 -0.934633 -7.14593 
-0.256783 -1.0249 -7.30653 
-0.022379 -0.875079 -7.2478 
0.0141652 -0.858656 -7.16078 
-0.24837 -0.784376 -7.28816 
-0.304234 -0.915628 -7.28977 
-0.0980659 -1.08084 -7.2766 
-0.0980659 -1.08084 -7.2766 
-0.047525 -0.929416 -7.26058 
-0.15821 -0.916694 -7.31927 
-0.262583 -0.900933 -7.32679 
-0.126843 -0.55254 -7.16414 
-0.158005 -0.849642 -7.31819 
-0.0280855 -0.960472 -7.24658 
-0.0472413 -1.00716 -7.26947 
-0.0708385 -0.942458 -7.27781 
-0.0589902 -0.936705 -7.26775 
-0.34263 -0.975259 -7.23504 
-0.259686 -0.914014 -7.335 
-0.178982 -0.543337 -7.15043 
-0.145982 -0.874142 -7.30615 
-0.150794 -0.803961 -7.31371 
-0.132824 -0.716596 -7.27283 
-0.132824 -0.716596 -7.27283 
-0.187212 -0.926272 -7.32806 
-0.2591 -0.903145 -7.33114 
-0.0471625 -0.591994 -7.15957 
-0.239769 -1.00045 -7.31895 
-0.258288 -1.0017 -7.3132 
-0.0105959 -0.604594 -7.13633 
-0.211658 -0.523339 -7.09966 
-0.235218 -1.00203 -7.32391 
-0.0227878 -0.594326 -7.14686 
-0.329452 -0.949872 -7.25344 
-0.121082 -0.741796 -7.27143 
-0.0361034 -0.943998 -7.25275 
0.0789404 -0.623235 -7.11164 
0.0129656 -0.817332 -7.09688 
-0.257026 -0.797615 -7.29119 
-0.061926 -0.772252 -7.24627 
-0.186614 -1.00761 -7.32786 
-0.26848 -0.903218 -7.32783 
-0.26265 -0.880682 -7.28604 
-0.00832012 -0.855956 -7.24208 
0.185622 -0.162531 -7.40978 
0.152894 0.0363019 -7.29268 
0.229302 -0.137842 -7.39026 
0.12821 -0.0107564 -7.35625 
0.0637083 0.0203174 -7.43688 
0.174144 -0.0199452 -7.28005 
-0.20345 -0.11833 -7.30971 
-0.0671699 -0.72298 -7.20073 
-0.203484 -0.590435 -7.1933 
-0.209427 -0.904872 -7.33122 
-0.249202 -0.840844 -7.2905 
-0.117525 -0.463379 -7.20279 
-0.304533 -1.14642 -7.29753 
-0.331856 -0.914481 -7.27322 
-0.25517 -0.670517 -7.27343 
0.018476 -0.86402 -7.15557 
-0.152742 -0.450601 -7.19742 
0.00900223 -0.915231 -7.19342 
-0.317566 -0.830443 -7.30667 
-0.275089 -0.898146 -7.31485 
-0.0115996 -0.953805 -7.22894 
-0.230036 -1.07401 -7.30679 
-0.239394 -1.11759 -7.29956 
-0.095151 -0.887224 -7.27891 
0.190674 -0.473733 -7.33425 
-0.120089 -0.589056 -7.18784 
0.0220975 -0.944646 -7.18165 
-0.245295 -0.665956 -7.28036 
-0.223647 -0.602653 -7.24087 
0.0354678 -0.892889 -7.11974 
0.00732628 -0.92171 -7.19911 
0.00687885 -0.820684 -7.12812 
0.24994 0.137445 -7.57316 
-0.146773 -0.488193 -7.18651 
-0.25165 -1.12592 -7.29863 
-0.0688881 -0.282955 -7.31937 
0.232418 -0.0602076 -7.21389 
-0.236843 -0.0530287 -7.31511 
-0.247509 -0.893552 -7.30967 
0.249506 -0.038586 -7.15157 
-0.133517 -1.15523 -7.2377 
0.294082 -0.093729 -7.08812 
-0.210676 -0.21454 -7.26649 
0.243295 -0.429124 -7.32792 
0.21504 -0.13252 -7.40831 
-0.177864 -0.0202862 -7.375 
-0.245695 -0.281752 -7.22463 
0.381014 -0.366539 -7.26488 
-0.208521 -0.688516 -7.28314 
0.0786828 -0.357377 -7.3356 
0.408154 -0.269446 -7.30698 
0.0280152 -0.358926 -7.31566 
-0.125312 -0.561464 -7.16614 
-0.135744 -0.576257 -7.15015 
0.0935419 -0.0907822 -7.40099 
0.150516 -0.048972 -7.33806 
-0.0427122 -0.806144 -7.23041 
-0.0670819 -0.939335 -7.26316 
0.213527 -0.439655 -7.34841 
-0.122891 -0.511065 -7.18425 
0.234248 -0.166538 -7.41915 
0.00454165 -0.831564 -7.14982 
0.0174375 -0.891667 -7.1715 
-0.0340404 -0.940944 -7.24975 
0.135622 -0.291536 -7.36306 
-0.216354 -0.379112 -7.19149 
-0.164395 -0.871694 -7.31521 
-0.0321017 -0.507298 -7.19569 
-0.216333 -0.959493 -7.33171 
0.169746 -0.144068 -7.41065 
0.17534 -0.255521 -7.38887 
0.286325 -0.162918 -7.28104 
0.114642 -0.0816337 -7.37708 
0.178358 -0.126124 -7.41562 
0.0436608 -0.999903 -7.07537 
0.377675 -0.224994 -7.24446 
0.228242 -0.108283 -7.28225 
-0.142488 -0.57531 -7.18177 
-0.0882143 -1.14215 -7.24937 
-0.23303 -0.695103 -7.28982 
0.239186 -0.230668 -7.41057 
-0.0863412 -0.733543 -7.24426 
0.110481 -0.0623961 -7.38541 
0.0327921 -0.953166 -7.17129 
-0.0908104 -0.253886 -7.31387 
-0.0881317 -0.253785 -7.32059 
0.00756484 -0.850945 -7.16845 
0.269126 -0.0963906 -7.15159 
-0.0400195 -0.0401781 -7.43012 
-0.220252 -1.00352 -7.32851 
0.275119 -0.229605 -7.40705 
-0.0158511 -0.0829321 -7.42003 
-0.300894 -0.831814 -7.30215 
0.203127 -0.0870793 -7.28754 
0.252528 -0.18864 -7.42158 
0.205682 -0.00187168 -7.2137 
-0.0419978 -0.858412 -7.24427 
-0.171833 -0.587587 -7.20406 
0.206326 -0.265163 -7.38893 
-0.236768 -0.607195 -7.23674 
0.236291 -0.0472573 -7.17742 
0.108022 -0.21625 -7.38525 
0.149246 -0.37586 -7.36807 
-0.0357644 -0.0183032 -7.43828 
0.0115478 -0.900417 -7.18377 
0.191987 -0.364611 -7.37207 
0.304348 -0.215442 -7.40213 
0.328391 -0.20343 -7.3838 
-0.00934877 -0.262893 -7.3475 
0.123663 -0.275849 -7.36302 
-0.0263398 -0.970401 -7.25317 
-0.013118 -0.593839 -7.14655 
0.179564 -0.228869 -7.39446 
0.0599645 -0.246182 -7.39077 
0.0101201 -0.877295 -7.18034 
0.207957 -0.353105 -7.37341 
-0.191837 -1.08666 -7.30685 
0.393349 -0.262447 -7.3655 
-0.072028 -0.159761 -7.38089 
-0.204958 -0.584194 -7.22657 
-0.0236154 -0.914174 -7.23001 
-0.267466 -0.689329 -7.29091 
0.102372 -0.344078 -7.36308 
0.320385 -0.221279 -7.39687 
0.168137 -0.326687 -7.37856 
0.0339165 -0.228048 -7.39059 
-0.2894 -0.187991 -7.22742 
-0.24652 -0.65177 -7.2819 
0.157801 4.57467e-005 -7.31934 
0.153954 3.9921e-006 -7.30837 
0.282006 -0.216215 -7.41065 
-0.18914 -1.07857 -7.31305 
-0.134229 -0.209293 -7.31385 
-0.015038 -0.756411 -7.13113 
0.14223 -0.419554 -7.34681 
-0.273905 -0.731486 -7.29367 
-0.235926 -0.6446 -7.27963 
0.194966 -0.275491 -7.38373 
-0.0519717 -0.849552 -7.23754 
0.18542 -0.134488 -7.41802 
0.220793 -0.0792466 -7.2203 
0.2984 -0.248098 -7.40533 
0.00420261 -0.00198584 -7.45844 
0.291829 -0.181263 -7.382 
0.290652 -0.169675 -7.30009 
-0.126555 -0.213173 -7.31927 
0.314967 -0.180458 -7.23552 
0.0405142 -0.194756 -7.40303 
0.176393 -0.054585 -7.30603 
-0.00437744 -0.364812 -7.29543 
-0.0354473 -0.202151 -7.38809 
0.292695 0.0974155 -7.61123 
0.195549 -0.338707 -7.37393 
-0.0871539 -0.545967 -7.16805 
-0.0729098 -0.896244 -7.26395 
0.0122136 -0.194779 -7.39732 
0.173774 -0.351551 -7.37737 
0.0320501 -0.859764 -7.10023 
0.0310396 -0.859549 -7.098 
0.315582 -0.407066 -7.32789 
0.212459 -0.1557 -7.41458 
-0.267864 -0.811794 -7.30213 
0.0154988 -0.824646 -7.09463 
-0.213482 -1.00643 -7.32923 
-0.0390946 -0.179078 -7.38682 
0.372209 -0.276728 -7.36449 
0.301742 -0.489292 -7.2891 
0.298195 -0.16449 -7.2176 
0.221574 -0.268199 -7.39447 
0.221589 -0.268134 -7.39451 
-0.0915194 -0.997611 -7.29472 
